# .PCD v.7 - Point Cloud Data file format
VERSION .7
FIELDS x y z
SIZE 4 4 4
TYPE F F F
COUNT 1 1 1
WIDTH 1758
HEIGHT 1
VIEWPOINT 0 0 0 1 0 0 0
POINTS 1758
DATA ascii
2.294484 5.935218 2.196216
0.6958284 5.27018 4.069348
1.605087 5.231012 2.778231
0.6978965 5.595895 4.158627
2.132777 5.641187 2.534102
-0.04998212 5.595343 4.822974
1.179325 5.193526 2.869222
1.06421 5.770391 3.834635
2.440844 5.781943 2.365876
2.249946 5.486473 2.615218
1.501748 7.241285 3.716049
2.583958 6.778659 4.240613
1.592588 5.261923 2.748309
2.806055 6.02873 3.132656
1.104447 5.564842 3.177974
1.112928 6.302224 3.125211
1.109772 6.285276 3.190084
0.9503242 5.764107 4.137084
0.9114634 5.717813 4.225419
1.387551 6.976282 4.587977
2.628102 7.25494 4.238019
1.500234 7.479107 4.294451
1.497865 6.78272 4.37854
1.036189 5.563618 5.269355
1.456972 7.533173 3.990329
2.69396 6.605245 3.606899
2.547186 7.674647 3.911353
1.648305 7.047772 4.613796
1.617809 6.639016 4.162446
1.746626 7.622213 3.965586
1.274893 7.455412 3.40043
2.730799 6.694396 4.473592
1.167471 6.678646 4.754829
-1.6686 10.52878 3.13741
-2.237677 9.597052 4.839432
-1.11103 10.61719 4.822556
1.733697 7.034426 3.682957
-0.1435065 7.338153 1.595392
2.13614 5.286588 2.283996
2.536821 6.70215 4.000151
0.3830014 5.25688 2.111844
0.736623 5.546278 3.135592
1.108406 5.470816 2.446429
1.086165 6.333495 3.164527
1.130068 5.172762 2.677039
2.259949 5.510436 2.053622
0.1044557 5.268339 3.882336
1.212083 5.399819 2.934965
1.170314 8.1165 4.015481
1.151816 6.074854 2.837505
-1.35136 5.529155 4.718493
0.9299767 5.602898 4.589465
0.9028642 5.743742 4.22407
1.228368 6.241064 3.482486
1.404159 6.169408 5.306282
0.9958811 6.283007 4.760447
1.566488 7.09308 4.432935
0.9684364 6.220248 4.492901
1.572312 7.48772 4.25467
1.342159 6.478367 5.316779
0.9161999 5.761336 3.763847
1.096231 5.703547 3.388946
2.254195 5.47825 2.639909
2.533762 6.825511 4.343451
2.244886 5.92094 2.735492
2.319608 5.888303 2.335735
1.06154 5.380489 3.895599
1.698483 5.292452 3.024411
0.02391382 5.915566 3.665028
1.587414 6.69965 4.525487
1.047499 5.399457 3.877691
2.646576 6.817277 4.135876
2.295373 6.330359 2.367523
1.829196 7.281122 3.720543
1.581263 6.875537 4
1.17277 3.851755 5.967067
0.9621604 5.402499 3.162794
-0.1474676 10.66274 3.033498
0.9765048 10.35078 3.328846
2.441962 8.0432 4.416406
2.365923 9.576958 2.949986
-1.590868 10.59676 4.925811
2.24981 10.58303 5.547142
-0.1467133 10.45333 3.47261
0.2044181 10.59452 3.134178
0.5696424 10.68639 3.159753
2.311409 7.79332 4.429049
2.051974 9.301085 5.23043
2.4729 7.993008 4.75021
1.478257 7.927834 4.229074
2.117567 7.282763 4.251357
1.50611 6.590353 5.490989
1.626586 6.662942 4.024949
2.54883 6.749249 4.126363
2.662768 6.92215 4.27092
0.5838305 5.631303 3.999864
1.140995 6.254407 3.173203
2.760392 5.924732 2.690943
2.463037 6.713621 4.064786
1.224602 5.27783 2.502666
2.30091 5.940084 2.195475
2.196079 5.854669 2.898372
1.586196 6.904392 4.054366
1.284718 6.193108 5.04824
0.9654847 5.516533 4.687969
0.006961411 3.422545 6.824469
1.190418 5.287032 2.811017
1.013812 6.145555 4.616426
0.7244554 5.625834 4.064213
2.207627 5.0889 2.733434
2.579658 7.885977 4.114441
0.9978942 6.273244 4.762721
0.04761743 7.591275 4.78197
1.117571 6.118084 3.204262
2.604512 6.806618 4.024156
2.314558 5.362704 2.9522
2.237225 5.490192 2.722387
1.203704 5.531965 3.152923
2.488638 8.16368 4.314403
1.068305 7.989066 5.770402
1.678845 9.520077 5.471278
2.178194 8.969478 4.997802
0.673127 10.69984 3.190531
1.874881 8.947519 5.263287
2.74364 5.950544 2.939708
2.276574 5.410118 2.935168
0.5834209 5.633253 3.993319
2.739525 6.262643 3.108992
1.115919 6.280651 3.210334
0.783837 5.608408 4.900745
2.252262 5.440389 2.913511
0.5974688 5.616807 4.447805
1.285254 6.449101 5.018277
1.123057 6.10639 2.919721
1.044743 5.988087 3.076377
1.090545 5.701481 3.326366
2.507326 6.77976 4.071111
2.27008 10.30322 3.18345
0.4730453 10.61233 3.561772
-1.623904 9.579782 3.262425
-1.504936 10.53622 3.047276
-1.525398 10.54048 3.248485
0.4877178 10.2888 3.164834
-0.8719744 10.44774 3.135479
0.3067218 8.303911 4.266519
-1.028685 10.8134 3.006256
0.9664204 10.63832 3.21279
0.5767206 10.75648 3.177089
1.081207 6.323533 3.124307
0.9704626 5.693212 3.845664
1.127356 6.080234 2.927675
0.8719128 5.629619 3.340525
0.7425465 5.555851 3.088317
1.106273 5.332108 3.228214
1.054866 5.720007 3.320051
0.9731804 5.6617 3.898678
1.123932 5.70263 3.005636
0.8777231 5.676683 3.292286
2.253028 6.968172 3.899154
0.7256379 5.60344 3.047669
1.565374 7.505585 3.626223
0.8185371 5.498757 3.413674
1.414767 7.824206 4.444157
2.223113 5.506589 2.596919
0.797851 5.659332 3.814879
1.368923 5.727557 2.326838
2.343114 5.878706 2.227901
2.228387 5.503795 2.862483
2.120385 5.994001 3.12769
0.08756986 5.047856 2.598879
2.238961 5.480007 2.719646
2.283939 5.574246 2.324889
0.2074397 5.559505 5.416597
0.980868 6.003347 4.42459
0.9230032 5.765962 3.439691
2.722436 5.895822 3.080056
2.348579 5.502113 2.353729
1.797082 5.795662 2.858598
1.243392 5.366066 2.856143
0.084094 4.665377 4.634781
1.188546 5.377282 2.709129
1.504275 5.480822 2.363389
2.180077 8.308012 5.328427
1.953233 9.236712 5.197161
1.854538 9.2112 4.981166
1.520973 8.879657 4.063869
-1.429981 10.50677 3.359818
1.776204 10.53136 3.286568
2.235451 8.573432 5.296839
0.9609992 6.259144 4.481438
2.667708 7.764728 5.034744
1.443919 7.705968 4.157849
1.44104 7.267567 4.690702
2.269635 7.415751 4.416381
2.513837 8.809504 3.675178
1.605153 7.435174 3.711325
1.5717 7.079403 4.448647
0.804775 5.646574 3.15458
2.88981 6.525306 3.838633
1.762975 6.114932 2.991933
1.108921 5.715117 3.319294
1.102934 6.141093 3.877965
1.041551 5.799281 3.777493
1.632076 7.90439 4.210358
1.779746 8.681483 3.973205
1.856984 9.403693 5.213181
2.175243 10.34351 5.375558
-1.595859 10.65923 5.098395
2.277805 9.50423 4.896267
2.397882 10.42327 3.297884
-1.362227 11.48505 3.269629
2.343294 7.784985 4.445238
1.646633 6.603672 4.237344
1.402913 6.820276 4.403173
1.359619 6.441854 5.453676
2.111104 9.039954 4.832352
2.607466 7.188851 4.334938
1.791905 9.919838 5.40257
1.968677 5.420561 2.424599
0.1807124 5.52719 4.973629
-0.0601725 5.72554 4.66757
1.233797 5.121798 2.605137
0.8078378 5.564939 5.430648
2.644633 8.20854 3.85675
1.304187 7.544312 4.490683
1.432384 7.274422 4.666326
1.310256 7.757105 4.133907
2.023195 7.497509 4.22086
2.485562 7.456705 3.938252
2.252751 9.489567 4.842055
1.627171 7.475968 3.775003
2.442547 8.333692 5.16871
2.883449 5.79803 3.061752
0.8323414 10.3607 3.476879
2.401729 10.59804 4.247056
1.202305 8.119378 4.176816
1.325238 6.493147 5.28111
0.5339144 5.648168 4.375885
2.39543 10.59905 4.23929
1.754604 9.888239 5.372059
0.4024625 10.38959 3.390609
-1.134324 10.71738 4.940199
-2.003044 8.514908 4.419081
2.186374 8.478429 5.170496
-2.002793 8.964345 4.391707
-1.444085 10.37837 3.076092
2.115869 9.416431 4.950943
-0.5867654 10.79667 3.070339
1.228811 7.988079 4.040802
2.17209 8.476794 5.146793
-1.32985 10.44271 2.913302
2.134531 9.656388 5.275906
2.40152 9.587823 3.588427
-0.944216 10.5896 3.336387
1.762043 8.823716 5.224406
2.472749 8.786076 3.600062
1.809784 7.270294 3.575089
2.220153 10.44168 5.013381
2.316816 10.57862 4.651332
-1.634749 10.70185 4.704063
-1.522173 9.501661 2.653802
2.330854 9.816107 3.292649
-1.159614 10.6846 4.73513
-0.4394549 10.27968 3.223248
1.238017 10.31369 3.402215
0.8398131 10.37187 3.491433
2.339118 9.797337 4.706114
2.490663 10.26821 3.531633
-1.495794 10.49842 3.202695
-1.769264 9.544538 3.111141
-0.1430341 10.42739 3.463204
-1.49442 7.027361 3.741489
2.263783 10.45908 5.569129
2.478294 9.545382 3.564369
2.438216 9.708342 3.626455
2.455164 8.77789 3.578014
0.4911779 7.747305 4.673409
1.673588 7.134107 3.670847
0.1755796 8.019371 4.002411
1.237033 7.587462 4.268936
1.707151 8.126393 4.320159
1.912143 6.744134 4.088206
1.334628 7.548351 4.562466
2.055676 6.64866 4.218817
1.169603 6.251852 2.861141
2.750267 5.932513 2.963087
1.093088 6.309403 3.150493
1.094748 5.432003 3.153353
2.237816 5.90685 2.8846
2.749479 6.076135 3.093807
0.1307369 5.468304 3.372543
-1.845347 7.084027 6.048024
1.933879 9.29108 5.263242
2.437233 8.729491 4.210271
2.37436 9.81425 4.714633
-1.018107 10.79707 3.020626
-0.3861432 10.83219 3.120887
0.8872657 10.80437 3.279176
0.6852893 10.74869 3.231043
0.1589474 10.75033 3.131819
0.8689759 10.70635 3.20778
1.870691 9.429136 5.31195
0.5587012 8.723828 4.877764
1.797275 9.291843 5.099069
1.670896 7.355147 4.507544
1.136039 6.308833 3.311213
-1.443678 9.201051 3.169386
0.09629 8.24065 4.293842
1.257592 10.4058 3.628352
-0.2976581 10.66489 2.622163
-0.7404583 10.85018 2.687829
-1.415346 10.64063 2.974961
-1.924675 9.414671 3.937685
-1.527062 10.52647 2.958448
-0.0753054 11.09534 2.928221
-0.7878297 10.6864 2.944074
-0.8142307 10.52257 3.177714
2.294426 10.14799 5.277755
0.5378497 10.44938 3.596997
-0.1558181 10.50445 3.261255
-1.939296 9.156827 4.0513
0.5116505 10.78561 3.717001
-1.792741 9.451327 3.952027
-2.019852 8.738917 4.421751
1.518519 10.12114 3.276167
2.455539 10.60005 4.07442
1.223752 10.46235 3.715448
0.2317573 10.39547 3.370075
0.856342 10.40169 3.531909
1.185863 10.4578 3.705071
-0.7918884 10.50097 3.415118
-1.431483 10.53225 3.413456
-1.242474 10.77 2.9697
1.219165 8.131452 4.190992
-1.589184 10.59571 2.888803
-1.241343 10.30474 3.054822
1.67095 10.41063 3.317272
-1.646484 10.72979 2.978307
-0.2871675 10.67261 2.644069
-0.5912913 10.66347 2.605283
0.8019344 10.96754 3.165489
-1.230213 10.71518 2.921373
0.8694205 11.19847 3.122461
0.05477585 10.70109 3.088284
1.927736 9.615419 5.302391
-1.657335 10.69557 4.930829
2.425605 9.250411 4.658309
1.50616 10.26278 3.453899
1.075243 6.028657 3.195058
2.271155 5.689001 2.758942
0.1319117 5.452827 3.38176
2.753786 6.068647 3.104655
2.709633 6.706988 3.618354
0.7260749 5.62773 3.110373
2.681134 5.566819 2.902622
2.20297 5.944641 2.852993
2.661549 5.712173 2.900785
0.6015984 5.589694 3.733704
2.436445 6.843329 4.171094
0.9533052 5.722348 3.799912
0.8656574 5.620196 3.355932
1.829344 5.93906 4.029179
1.586095 5.378757 2.162516
2.177722 5.263314 2.183722
1.65408 6.223485 3.696071
1.593078 5.358242 2.203841
1.169099 6.059164 2.858994
2.218942 5.30679 2.363378
-0.03036857 5.224489 2.333592
0.7586385 5.631108 3.091947
-0.3526659 5.236495 2.344474
1.180235 5.460329 2.883632
-0.3525045 5.508872 2.313114
-0.2370331 5.290577 2.259333
1.66146 5.224856 2.255623
-0.208294 5.257817 2.378938
2.188229 6.070183 2.020761
1.554084 5.485733 2.19339
2.330467 5.517251 2.350566
1.689015 7.339334 3.524481
2.278331 6.94917 3.983978
1.086733 6.19371 3.532814
2.229106 5.884543 3.290336
-0.2795735 5.285759 2.325722
-1.609563 10.63054 2.904824
0.2670959 10.71493 3.118434
1.711555 7.635552 3.856105
1.467387 7.900244 4.259307
1.418881 7.892869 3.769259
-0.3453522 10.41551 3.209878
2.623976 7.427511 3.778451
0.8153253 5.573858 5.428882
2.595504 6.040493 4.310213
1.588937 5.258392 2.772866
-0.01189872 6.087768 3.715996
2.067342 8.942652 5.042453
1.461892 7.916865 4.179179
-1.483804 10.34425 4.72294
0.8995364 5.675711 4.514343
2.228628 5.51248 2.607881
2.249531 5.469121 2.744371
2.17277 5.233725 2.791548
0.8911487 5.806716 4.06741
2.317631 10.55344 5.638392
2.459783 9.671 3.660796
-0.2188523 10.66112 4.975816
2.050987 9.831108 4.864372
-1.739465 9.251217 3.868324
-0.2507812 10.65822 4.968154
-1.098726 10.65596 4.892805
2.36057 10.3907 3.274908
-0.5603888 10.64981 4.915166
-1.848985 8.93437 4.064985
2.219725 9.568243 4.8411
-1.897398 8.902091 4.000273
1.630949 10.3268 3.239035
-1.082937 10.3958 3.165643
-0.6552655 10.45399 3.348254
0.8238776 10.32387 3.438175
1.513821 7.424459 4.492001
1.937572 9.247156 5.201613
2.354624 9.667044 5.08552
-1.081489 10.65264 4.816604
0.07890634 5.604759 3.457788
2.157083 6.000801 2.663974
1.068668 6.219948 3.128098
2.211291 5.287847 2.237746
2.659715 5.973393 2.931484
1.697599 6.682333 4.168931
2.123344 9.965925 5.172533
1.281844 10.32351 3.39411
1.638299 10.31865 3.481411
1.269309 10.32585 3.403166
-0.688715 10.72601 2.994691
3.414071 4.772132 2.777411
2.060197 5.530537 2.66629
-0.2110525 5.54883 2.243132
1.812807 5.365586 2.36172
1.722985 5.337568 2.396263
2.115648 5.29495 2.774101
3.027812 5.707947 2.584175
-1.61843 9.548798 3.324339
-0.370889 10.48174 3.394207
-0.3870675 10.45895 3.242035
2.261217 10.59895 5.583786
-0.9793953 10.49214 3.258127
-0.06364459 10.56728 3.071001
-0.3676097 10.46646 3.376638
1.787206 8.796721 5.278214
-1.82813 9.048027 3.833329
0.06790945 10.35689 3.166625
1.266364 5.314751 2.970139
2.436903 6.21985 2.382815
1.67682 6.632978 4.100862
0.8423669 6.21345 4.325599
2.700384 6.096839 5.548024
1.915898 8.83514 5.657512
1.711753 6.600817 4.173695
1.320178 7.585024 3.867545
1.60139 7.172506 3.571939
2.457723 8.015611 4.520242
1.986524 9.824018 5.009904
2.545425 8.305683 4.533988
1.760042 7.184199 3.565642
-1.065455 5.812029 3.705976
1.490278 6.550851 4.431786
-1.516716 7.393136 5.020182
1.285986 7.589322 4.431829
1.846445 7.265489 3.598053
1.59322 6.278894 3.371277
1.584112 6.277989 3.176356
1.094734 6.181134 3.530172
1.449783 7.180172 4.130847
1.489374 6.747765 4.587164
-0.7840921 10.47183 3.393007
2.327839 5.887783 2.343894
1.715027 7.227713 3.395457
1.531238 7.21292 3.71785
1.960744 5.297706 2.576639
2.19653 5.365829 2.477487
2.28526 9.763703 3.235394
1.776609 8.751616 5.401883
2.119261 9.329739 5.122125
1.734053 8.753372 5.372638
2.74015 6.663205 4.175445
1.333788 6.102251 5.187548
2.476288 7.78453 4.680962
0.4768584 7.758242 4.481222
1.781387 8.13657 4.505497
1.308126 6.117662 5.146989
1.424075 7.912367 4.088848
1.750428 7.410882 3.5701
2.221389 5.97216 2.320391
1.816819 7.181435 3.566816
2.622053 7.245455 4.244481
0.5870976 5.703884 4.300665
1.207493 5.432359 2.871907
1.112871 5.724381 3.320574
1.211579 5.692051 2.884187
1.120812 5.394557 3.178048
0.1312771 5.471214 3.358896
1.477178 6.437797 3.127439
0.7111884 5.717545 3.034693
2.247504 5.900876 2.905403
2.707175 5.679444 2.931621
2.738081 5.556474 2.857661
0.6018109 5.577631 3.748438
2.127807 9.267198 5.136024
-1.696393 9.488568 4.045495
1.188012 10.47593 3.726641
2.605133 8.166893 4.510018
1.286514 5.007948 2.652095
0.09775916 4.284214 5.232674
-1.542362 8.722159 5.026406
0.1960322 5.626774 5.319125
0.2055782 5.615844 5.331998
0.288038 7.676316 1.470456
1.493916 6.548254 4.441397
1.186213 6.93799 5.686108
1.166914 5.600635 3.085647
1.531468 7.05719 4.140327
2.291533 5.468807 2.065277
0.8503185 5.353618 2.085084
2.806466 6.526044 3.708654
2.336991 5.906888 1.874782
1.47947 6.753603 4.298671
2.356574 5.886867 2.12553
2.286441 5.455957 2.068671
1.571347 5.427993 2.204216
1.898022 5.354377 2.417392
-1.611465 10.64367 4.966183
-1.259893 10.82572 3.022497
-1.398046 10.74889 2.542212
2.418388 7.510372 3.991592
-1.148216 7.639032 3.883477
1.714321 9.040586 5.412721
-1.182877 6.056955 4.096818
2.049743 9.220935 5.155104
1.335071 7.261906 4.977012
-1.498191 5.496671 5.088974
-1.356951 10.51285 2.878542
2.248765 10.09927 5.175402
-1.887782 8.973454 3.955674
-1.427376 10.51387 3.378884
1.662157 10.35839 3.539961
-0.0501092 10.60508 3.421988
0.94778 10.36433 3.336125
-0.9794037 10.4385 3.223678
-1.86135 9.198019 3.880762
-2.131149 8.478433 4.259024
1.69562 7.343137 3.558475
1.36033 6.361325 3.208731
1.506525 6.774197 4.382801
1.596085 7.26231 4.259072
1.487442 8.005235 4.156398
1.863528 7.111025 3.758524
0.5220105 7.732581 4.884756
0.3936518 5.254925 1.757536
1.222803 5.696759 2.928146
1.598437 7.182341 3.575571
2.090218 9.547389 4.94714
2.567225 7.440252 4.059486
1.564517 7.553934 3.851588
2.636153 8.216956 3.880245
-1.584253 7.218489 5.243882
1.855481 7.254619 3.623122
1.483372 7.869473 4.211355
2.446202 8.72657 4.226843
1.519217 8.005732 4.319304
1.437452 7.783504 3.970471
1.511029 7.584037 3.759058
2.374497 9.256221 4.708356
1.806747 6.848013 4.009109
1.366583 7.378875 3.448869
2.687901 7.994215 3.596646
1.504382 7.687601 4.933747
-2.036211 8.139271 4.286636
-2.128657 8.480193 4.257296
-0.05210013 4.968801 1.567478
-0.200552 4.980886 1.567982
2.927528 7.534505 3.840838
2.530742 7.530191 3.814903
0.5813163 4.709742 3.561142
-1.923889 7.712061 4.259617
2.399018 8.622287 4.220156
2.060073 10.41935 2.759485
-0.6669953 10.42258 3.35386
-1.17015 10.45699 2.722131
2.023917 10.14989 2.783232
0.9577627 7.365595 5.021214
1.621096 8.542424 5.454384
2.547517 8.276767 4.368281
1.112659 10.6713 3.251969
0.3271318 8.297807 4.242234
-0.7715971 10.6195 2.904567
-0.4526692 10.59753 3.038531
-1.321792 10.45759 3.187517
-1.696409 9.59676 3.756862
-0.2056938 10.66838 4.980093
-1.130576 10.69512 4.898019
-1.727563 9.517155 4.055344
2.27878 10.56094 4.692554
2.246629 10.62028 4.248086
-0.003969535 7.705747 5.036326
1.704941 7.139617 3.67115
-1.092128 10.41381 3.182612
2.43568 10.00333 3.421469
0.3610723 10.36211 3.367552
2.415242 9.616389 3.621099
2.308514 9.755669 4.984506
0.9058537 5.670423 4.498928
0.9164987 5.727065 4.180792
1.768428 6.734876 4.408671
1.001594 5.301219 3.220201
1.228634 5.506172 3.190867
1.184537 6.003088 2.890541
1.192516 6.218307 2.907226
2.253562 5.883065 2.88346
1.58553 7.433859 3.65744
2.74506 6.263954 3.110986
-1.437819 10.54372 3.423115
-0.1518555 10.6379 3.002758
-1.304192 10.59953 3.088901
0.8167873 10.52703 3.0738
-1.280185 10.65651 5.032814
0.836139 10.62488 3.148373
1.162819 10.6907 3.267043
-0.5577133 10.58222 2.860515
2.297716 9.742909 4.613768
0.04403295 7.651549 4.780481
2.620032 7.257565 4.246989
1.222281 5.809024 2.957489
1.294328 7.308522 4.923637
0.5283141 7.982756 4.436831
1.558994 5.381026 2.414231
2.244949 5.948864 2.155664
1.602321 7.171793 3.574411
1.996367 5.340787 2.71566
1.241235 5.118423 2.602701
1.13377 5.450674 2.934592
0.97906 6.419275 2.956728
1.68872 5.273047 2.254124
2.17276 5.372821 2.337289
1.155328 6.278307 2.825148
1.671591 6.992839 3.638847
1.751969 5.835701 2.493517
1.421995 6.866498 2.224763
0.9496269 6.398973 3.547491
-0.04931532 6.964936 2.804166
2.703882 5.937767 3.076237
0.9010713 5.914952 3.606625
0.9087881 5.835056 4.212824
2.731346 5.956369 2.983701
2.664154 6.010259 2.610724
1.129499 5.459676 2.809724
2.218688 5.842693 2.907392
2.254238 5.342187 3.042438
0.7789735 5.629287 5.306407
1.168086 5.834695 3.060536
-1.383178 5.146326 5.233705
-1.100984 5.291054 5.119958
0.5513153 5.216652 1.723365
2.003701 6.254756 3.579926
1.175223 6.241715 4.819063
2.801753 6.611475 4.289974
1.99234 6.26314 3.57091
1.337212 6.247464 3.175635
1.596209 6.267223 3.189112
1.326462 6.264922 3.156351
2.671191 8.14418 4.324074
2.804627 7.981978 3.750677
1.438789 7.747483 4.380069
2.229071 9.589655 4.874517
2.494411 8.027226 4.576395
1.557556 7.550059 3.831642
2.681752 9.053358 3.953414
2.680094 7.013288 4.660319
2.411348 7.498766 3.84638
1.91833 9.459833 5.412057
1.235724 7.564791 4.266579
1.482633 7.262837 4.746087
2.549959 7.948391 4.142818
0.09987051 8.249994 4.408184
1.470079 7.999107 4.179613
1.859142 9.399894 5.29203
2.680474 7.937256 3.654125
1.440904 8.511414 4.558119
1.684688 9.522789 5.484457
0.2270385 8.280266 4.06708
1.13729 6.738484 4.589243
1.335282 7.432833 4.940046
2.539967 8.64586 3.626196
1.726925 7.899476 4.026137
-1.816563 7.333032 5.943079
1.421209 7.422098 3.657393
2.640826 8.171947 3.903138
-1.215163 7.27757 4.123971
-1.803154 9.307127 4.064597
1.631365 10.44511 3.643004
-0.3711046 10.48472 3.39674
-0.03684011 7.789719 5.003847
2.459127 9.615427 4.562705
-1.816454 8.124805 4.433785
2.503873 8.041894 4.49991
1.476176 6.475511 5.008455
1.375174 7.31405 4.493632
2.305263 7.15924 4.64201
0.2362832 8.284776 4.195753
2.303142 10.57069 4.660655
-1.837204 9.170745 4.025794
-0.1981916 10.66399 4.969401
-1.643935 10.72416 4.692355
1.700275 7.629988 3.84503
1.839417 7.073681 3.678924
1.452439 6.786339 3.740911
2.258955 7.218536 4.229196
1.415488 7.740067 4.449247
1.189949 6.122982 3.070221
1.140327 5.135334 2.69945
2.349964 5.857154 1.959566
-0.02843211 5.088633 2.382455
1.951664 6.319118 3.503326
2.571396 6.072008 4.80845
1.689065 5.071592 2.848679
1.265027 6.687589 2.796278
2.144266 9.703688 5.1209
0.5510622 10.52597 3.68415
-1.256654 10.80242 2.705124
2.269827 9.480895 2.833768
-0.256952 10.76941 3.094409
-0.6998983 10.38128 3.129092
-1.797996 9.852814 3.500559
-1.488869 10.47494 3.186258
0.2296114 10.37167 3.340143
-0.4481208 10.3923 3.291527
-1.666456 10.69874 4.933931
0.7146704 10.32233 3.222424
0.8519567 10.4263 3.529322
2.322071 5.904951 2.312189
1.666843 6.641658 4.08763
2.264627 5.462258 2.64131
1.426347 7.709821 4.116773
2.285238 5.916471 2.332913
0.7299884 5.616095 3.108704
0.7697161 5.635807 4.846454
0.9692085 6.020319 4.364006
1.925934 10.70635 3.552611
0.17008 8.01582 4.142121
1.481978 9.277163 4.865188
1.627163 10.51306 3.842454
1.176112 5.488079 2.904369
1.194234 5.419982 3.526929
2.181317 5.368366 2.564067
2.300519 5.890445 2.181238
0.86275 5.703132 3.236685
2.608984 7.890235 4.239434
0.0470299 6.367785 2.890802
1.790469 6.001544 3.958108
1.10118 5.013823 3.396181
2.808911 6.195123 3.495891
1.081777 5.341251 2.921009
0.5918091 5.663273 4.321285
0.992469 6.300023 4.743264
1.083335 5.298891 2.950271
-0.5700964 10.69392 2.982785
-1.222608 10.99788 2.972041
-0.9907182 10.66906 2.926962
-0.6636633 10.50177 3.44317
0.06722094 10.42227 3.241371
-0.6450601 10.38281 3.304001
1.98821 6.263779 3.565281
1.106141 6.158497 3.582587
2.609659 7.082168 4.507851
1.35706 7.390917 3.578912
1.28586 7.151923 4.633635
1.537409 6.492284 4.557675
0.9635154 6.035737 4.319994
1.689464 10.0919 5.701644
1.221274 7.986761 4.023654
1.560137 7.947964 4.082134
1.171574 5.329433 3.008665
0.6108447 5.622002 4.417519
1.974168 7.189877 3.987693
2.641509 5.611771 2.861655
1.167628 6.244939 2.879732
0.8909765 5.694976 4.510097
-1.51418 5.205796 5.182458
1.496022 7.914425 4.281121
0.8614391 10.38714 3.538562
0.1103922 8.105652 4.251251
0.2630692 10.66792 3.094623
2.285267 9.495172 2.852204
0.1077021 8.103321 4.191808
1.592662 6.263937 3.189865
1.532017 6.625913 4.475198
2.616514 6.769946 3.979229
1.349192 6.230263 3.189153
1.959337 5.267707 2.453906
-1.926578 8.913465 4.232736
1.616328 7.156551 3.608577
1.898518 9.925561 5.308666
-1.857119 9.424186 4.356142
2.352122 9.658565 3.479762
2.638368 7.311664 3.488708
2.690525 7.297884 3.539783
0.5363578 7.956669 4.683974
1.645546 8.126268 4.147345
2.64859 6.732869 4.267199
2.466031 7.401415 4.717885
1.122097 5.464156 2.761534
2.435458 6.848512 4.158149
0.7185001 5.535682 4.178988
1.007865 5.279012 3.214956
0.09451231 5.233798 4.01737
1.678515 7.293541 3.581928
2.753163 5.937057 2.951238
0.588506 5.824739 3.985952
0.7975283 5.663687 3.804135
2.490103 7.176155 4.054644
2.281332 7.326594 4.384561
-2.22898 6.819578 4.736969
2.000935 4.780295 3.952056
2.246853 9.699463 2.863755
-1.555737 10.64792 3.311001
-0.5390053 10.69454 4.969048
1.925541 9.2974 5.248939
-1.954915 8.476148 4.292096
2.625137 8.28147 4.247864
-1.741833 7.942838 4.272179
2.584036 8.260382 4.236296
1.26372 4.818703 1.846093
-1.52154 4.73915 3.31101
0.4937917 4.837434 1.86868
1.353832 4.815943 1.883339
1.040272 4.939662 1.681846
-0.6288226 4.910506 1.794216
-1.475773 4.302941 3.284884
0.1806405 4.78883 3.50611
1.368026 4.822683 1.900014
-0.6515362 4.706989 3.474359
1.576968 4.694535 4.095851
1.667898 4.789508 3.529445
2.534601 8.166396 4.08708
0.3052103 8.322309 4.367294
0.132164 8.022662 4.123168
2.557981 8.292829 4.384812
0.01314877 8.063563 4.261554
1.217195 5.41003 3.085722
2.583225 7.570845 3.82652
1.112875 5.70212 3.249904
-1.554982 6.766843 3.881014
2.659291 7.361659 4.241297
1.100464 5.654555 2.963872
2.471284 6.856453 4.158914
0.14147 5.536411 3.542981
1.385883 6.333822 3.092489
1.181733 5.730234 3.286904
1.187115 5.462392 2.851871
0.961193 6.004194 4.374986
1.708644 7.359204 3.59524
1.577947 6.959629 4.07241
-1.618054 10.68992 4.578431
-0.1806164 10.66784 4.950009
2.460449 9.41456 4.453534
2.477931 10.60452 4.19804
2.215233 10.64453 4.626158
-1.637262 10.64757 4.735343
1.372179 6.765078 4.103686
2.674852 6.273342 3.755153
2.620336 6.018609 4.909486
0.9772977 6.329166 4.717783
0.5385121 5.6088 4.442123
2.629067 6.303537 3.70594
2.63728 7.082103 3.866917
1.715024 7.345386 3.601575
2.66334 7.059265 3.877752
2.724776 7.116026 3.974926
0.5330634 7.985075 4.4365
2.001778 6.551138 3.931761
1.837456 8.9333 5.153706
-1.962504 8.702952 4.316508
2.430316 9.449792 4.403731
2.473313 8.785857 3.614445
-1.860725 8.632417 4.093271
-0.06042153 10.51197 3.5601
2.22272 9.464614 5.061184
1.848289 9.366594 5.198146
1.561717 7.986617 4.1892
0.9361188 10.71681 3.291577
0.673783 10.69294 3.189483
1.224299 7.528218 3.877071
1.405917 6.801037 4.655134
2.507465 8.093854 3.723666
1.03921 6.250436 3.737654
1.155277 5.377088 2.849642
1.687437 7.363129 3.668148
1.698126 7.340607 3.530057
1.079002 5.752597 3.290465
1.148794 5.388215 2.83694
1.361902 7.391429 3.591957
1.384083 7.438217 3.584016
2.574144 9.004875 3.789041
2.213823 8.341317 5.418435
0.4764225 7.980413 4.174191
1.395986 7.749211 3.95658
1.200051 6.857012 4.779191
-0.3906635 5.247053 1.675021
1.438108 7.760147 4.530725
-0.1361353 4.857522 1.558084
1.48934 7.693207 4.99483
0.03397341 4.972022 1.580496
-0.5329121 4.972229 1.525391
-0.2404646 5.290373 2.139206
1.039961 5.477185 3.094869
1.679556 6.942298 3.760351
1.548244 7.166288 3.658426
1.63495 6.898055 4.046467
1.393694 7.042829 4.683137
-0.03563947 7.710581 4.944196
1.386634 7.381352 3.700336
-2.252758 8.00339 4.547285
0.47025 7.54528 4.954582
0.2542324 4.831682 1.55258
1.615302 7.435334 3.738289
-0.5272585 4.970382 1.519553
1.667639 5.430059 2.270288
1.031346 4.717688 3.642689
-1.832703 9.064769 3.854685
-1.4216 10.39322 3.026059
2.329867 9.810024 3.276144
2.220047 9.008793 5.056054
1.147073 7.899207 4.384167
1.165075 5.872195 3.077043
1.048035 7.880781 4.49593
2.599584 7.991163 4.221955
1.871599 7.678339 4.01902
1.308905 7.541288 3.981228
1.127133 5.931998 3.243102
2.574489 8.168569 4.425054
-1.827296 7.941609 4.407298
1.560774 7.24694 3.692322
2.443641 8.362415 4.499355
1.153508 8.175344 4.237108
-1.992763 8.095898 4.293171
2.517997 8.215339 4.158978
2.431289 8.368118 4.487749
2.522861 8.282592 4.520082
2.165376 9.319459 5.073991
1.863624 9.59427 5.275004
2.45877 8.28364 4.408547
1.196664 6.291152 2.927466
1.142698 5.814425 3.303054
1.192066 5.460308 2.841137
0.1299569 5.524802 3.319016
1.200585 5.731251 2.871027
0.5911447 5.584136 2.653793
0.8910878 5.70982 3.246266
0.6370345 7.525324 4.972326
1.575378 7.193136 3.703519
0.9432594 4.722527 3.638155
1.044773 4.855186 1.698654
1.722042 6.948926 3.744597
0.5363919 7.998608 4.459535
-1.212011 7.70086 4.067877
-1.63895 10.47386 3.288817
-1.081316 10.49929 3.029024
-0.02888809 10.47921 3.48127
-1.239443 10.83869 3.610953
2.273209 10.62104 4.280062
1.412112 6.983827 4.642574
0.7871719 4.834033 1.687536
0.7107836 4.813653 3.434134
-0.7728153 4.695633 3.372785
1.062266 6.250618 3.867858
-0.09381021 4.81856 3.430136
-0.1474254 4.828177 3.481288
1.673378 7.091358 3.598051
2.878492 7.434408 3.854543
1.117959 5.918892 3.217117
0.5827261 10.7756 3.236232
-0.6687841 10.6396 2.928176
-1.14064 10.82417 3.036172
2.466013 8.334351 5.200647
0.05154724 10.72829 3.097136
-2.157621 6.751234 4.601962
-1.932645 7.729333 4.274716
-2.273244 7.965355 4.761856
1.591165 7.223541 3.749454
1.675205 7.084412 3.600839
1.41265 5.746756 2.915439
2.489332 6.854641 4.028811
1.095947 6.049936 3.258183
1.682433 6.94959 3.731997
-0.4622467 5.031087 1.520626
1.53918 6.166317 2.154082
-1.995513 7.746043 4.350362
2.169967 6.713136 3.765793
2.241184 10.44423 5.023398
1.530633 10.33803 3.4928
-1.025369 10.39719 3.146854
0.2314245 10.37697 3.354028
1.499514 7.501978 3.709574
-1.854158 8.868218 4.08343
-1.699566 8.870551 3.582329
-1.887668 8.973433 3.950015
0.3034906 8.311314 4.255941
-1.629659 10.61377 4.832989
2.257417 10.10517 5.166467
1.614632 7.487403 3.77584
1.531159 7.417433 3.798146
-0.8879033 4.696016 3.33893
1.373147 7.481756 3.743752
1.793667 7.156879 3.526505
1.349874 7.683794 4.157322
1.594799 7.07494 3.769084
1.496091 7.890078 4.42025
1.573645 7.18809 3.637268
1.104597 6.129229 3.130782
1.217112 6.302187 2.980343
1.42585 7.744692 4.508615
1.228653 4.724203 3.663328
1.124668 5.920475 3.241181
2.313452 7.355614 4.445062
1.183318 5.804344 2.949534
-0.4625891 5.02911 1.517009
1.475508 7.491735 4.234734
1.529925 7.571177 3.783607
0.4781763 4.71273 3.534991
0.1408808 4.709074 3.53309
-0.1230507 4.704819 3.510335
1.289401 4.719046 3.659566
0.1603155 10.73783 3.136423
1.655159 10.35768 3.532786
1.528165 7.882409 4.025944
-0.1554927 10.78251 3.120142
-0.6391529 10.46278 3.399169
0.8975099 10.80259 3.264131
1.157657 10.39724 3.633891
1.553972 7.866324 4.10301
1.876621 10.66398 3.592103
2.092565 9.575441 5.133155
1.661336 7.098307 3.601746
1.764064 9.883896 5.362246
2.087093 9.578552 5.134469
1.76609 9.900409 5.390296
-1.275813 7.172954 3.238019
1.714076 7.336037 3.583407
-1.590864 10.36986 3.017578
-1.815185 9.457376 4.017149
2.401898 9.247203 4.742687
0.2943811 10.43075 3.393141
1.805673 8.804804 5.327075
0.6372132 10.44319 3.570761
1.595452 10.37424 3.69571
-1.525663 7.845874 5.041159
-0.805121 10.42708 3.058476
2.051029 10.19514 5.08423
1.582007 10.37609 3.692624
2.457153 8.043019 4.465121
1.739649 6.868239 4.291593
-1.992738 8.497274 4.35314
2.340441 9.792942 4.696892
-0.5582043 10.65399 4.914879
2.409168 9.609699 3.613271
-1.891111 8.978984 3.968754
1.650355 10.35047 3.520934
1.931376 10.21426 2.616812
1.964866 10.26499 2.657905
2.283736 10.76292 3.011048
-2.107741 8.784881 4.620561
1.941762 9.841748 6.311879
1.820784 10.59204 3.347635
2.187741 10.31742 5.398877
2.519457 10.32633 3.558808
-1.723538 9.522662 4.073601
2.465037 9.447345 4.482299
-0.3464365 10.46828 3.382522
2.191677 9.477197 5.092341
1.338196 7.656702 4.155733
2.320357 10.62064 4.746676
-0.1436101 10.55487 3.589241
1.747449 9.890815 5.379497
-0.04967907 10.40781 3.41219
-1.477387 10.35291 3.971567
-1.804205 9.093437 3.770407
1.518484 8.611283 4.755484
1.373651 8.33772 4.369092
-1.927453 9.451145 4.056315
1.721047 6.982963 3.705897
-1.946488 8.646769 4.082785
2.184015 9.481412 5.09775
1.857941 9.388012 5.24482
1.639283 10.00442 5.53632
1.817405 7.170164 3.509067
1.112503 6.009302 3.234982
0.9428937 7.996435 4.145497
2.586636 8.223864 4.324085
2.621006 7.426317 3.777911
1.054767 7.994077 4.193551
0.1296453 8.112364 4.309263
2.414012 7.941681 4.357639
1.097378 5.718529 3.258852
0.5387915 7.996867 4.460707
2.320673 8.842502 5.043749
0.6879908 4.710576 3.583194
2.352868 10.59162 2.579284
1.954106 10.2478 2.63794
-0.3381955 10.16824 2.967613
1.308144 7.753006 4.137132
1.554616 7.592438 3.881661
1.510018 8.013054 4.162182
2.121253 9.958677 5.152181
2.164081 7.54685 4.093612
-1.149142 7.532745 2.956739
2.239169 10.60941 4.247253
-1.11232 10.6645 4.869098
2.391646 10.60484 4.242839
2.353789 10.62432 5.723225
2.278426 10.56748 4.668756
2.469356 8.033824 4.49382
-1.927045 9.434072 4.034238
-0.5487467 10.65014 4.924961
0.04822162 7.593947 4.777831
1.049429 5.48324 3.135186
0.833021 5.683323 3.041766
-0.06372055 5.604096 4.824543
2.689263 7.298229 3.65673
1.600892 9.603288 5.308255
2.197391 9.071252 5.047295
2.015144 8.941119 5.165012
0.8314492 5.806118 4.099394
1.216101 6.335759 3.561573
1.173537 5.875521 3.083072
1.18343 5.420081 2.956918
0.9819459 5.792542 3.725008
1.170251 7.568503 4.847901
1.157093 5.671508 2.840527
-1.90285 7.656259 4.202468
2.413758 7.450962 4.641963
2.424702 7.46439 3.87899
2.646705 7.010243 4.288656
2.651518 7.320351 4.720848
-0.9011317 4.692662 3.404755
1.356736 4.817441 1.870903
0.6945552 5.583431 3.758457
0.9933646 6.031382 4.490095
2.62803 7.302252 4.183568
1.035633 6.229195 3.765799
1.509117 7.504791 3.706804
1.583549 7.448365 4.250568
1.507017 7.47418 4.505459
-0.4053738 4.852725 1.544239
1.507332 6.771823 4.379592
1.183526 6.587106 3.997991
1.849033 7.201643 3.5677
1.734423 7.417055 3.711879
1.542738 7.243628 3.791363
1.994585 4.715527 3.711287
-0.3997683 4.842402 1.517177
-0.7482501 4.988207 1.959306
-0.6038043 4.818393 1.44556
1.008736 4.93141 1.648014
1.72985 4.739348 4.122122
1.037805 4.948126 1.697628
1.127757 4.834465 1.703781
-0.6686613 4.821943 1.506274
-0.5858725 4.842406 1.496913
-0.148957 4.857743 1.585889
-0.6015521 4.867087 1.616179
-0.7009842 4.825055 1.507123
1.265912 4.792663 1.757159
0.6940672 4.753165 3.024889
-0.6530802 4.860385 1.537384
-0.9509073 5.097359 2.102711
1.133627 6.265182 4.104436
1.592913 6.866353 3.963051
-2.16659 7.08234 4.678769
-2.205368 7.271653 4.671979
1.730485 7.383778 3.628263
1.555018 7.194113 3.849525
1.448448 6.98174 3.904591
1.121768 6.173195 3.226435
1.394196 7.04514 4.673369
1.130272 5.81296 3.254102
0.9705229 6.320345 4.729772
1.541157 7.043852 4.161567
-1.453721 6.759693 3.659343
1.21647 5.730984 2.910627
1.038674 6.003752 3.917837
0.6771426 4.812573 3.432319
0.0398507 4.840177 1.680868
1.240661 5.759428 2.947578
1.237394 5.670023 2.920882
1.252516 6.611924 4.186008
1.278175 6.703044 4.744354
2.637172 7.314529 4.215088
0.1793914 4.781911 3.415128
2.830151 7.439981 3.729931
2.460618 7.468784 3.749297
2.432264 7.479604 3.891918
2.619282 7.2105 3.460888
2.586065 8.164328 4.498718
1.683283 7.088532 3.65738
-0.3972939 4.706459 3.423175
1.807206 7.163928 3.684166
-0.3839455 5.236673 1.656692
0.9677548 5.903754 1.806987
1.537351 7.048851 4.165055
1.269176 6.704346 4.746818
1.27906 6.253324 2.89879
-1.129739 2.979167 3.399055
0.7308511 2.755259 3.792501
-1.347817 3.71452 3.323645
0.6838896 4.717939 3.56609
0.2970899 4.837702 3.491765
1.852224 3.567601 3.758567
1.575775 7.452383 4.24359
1.57644 7.491924 4.268929
2.135678 7.162427 4.015553
1.406106 7.75247 4.206874
1.138469 6.39333 3.739248
0.0225154 4.81917 1.743229
0.01834849 4.849976 1.682268
1.857815 6.989611 3.989024
1.182401 5.910483 3.142556
0.5189629 4.839144 1.555483
1.062331 5.791667 3.040549
1.229314 4.808254 1.774113
-1.374607 4.085442 3.368521
0.3241749 4.811205 1.650813
2.376408 6.888561 4.087388
0.4867464 7.986619 4.197748
2.61163 8.321231 5.770366
1.255064 7.590406 4.311983
1.877622 8.588325 4.997409
-0.3449438 4.826127 3.456899
-1.370139 4.69438 3.365045
0.6888424 4.828022 3.477033
-1.013719 4.692691 3.388034
1.076309 5.502725 3.212153
1.190596 5.464265 2.842736
0.9719823 6.010497 4.3879
0.6616318 5.547099 3.513297
1.021555 5.482333 3.065538
1.250875 5.433396 2.828508
1.179687 5.467076 2.845029
1.214056 5.475245 2.835942
0.678609 5.566699 3.660485
2.12417 6.648658 3.673937
1.178207 6.131787 3.074333
1.849249 7.044565 3.888466
1.453271 7.674291 4.171598
1.414232 7.055596 4.769963
2.791116 6.866256 4.253728
-0.387477 5.234906 1.663571
-2.1647 7.441044 4.666394
0.8189349 7.585413 4.998142
-2.115709 7.275665 4.331737
1.433668 7.279681 4.680898
-2.137796 7.500875 4.587398
3.26381 7.123236 4.354507
1.136053 7.313921 5.057606
-2.35743 7.557714 4.947071
1.617632 5.746435 2.896387
1.137324 5.812788 3.290375
1.380023 6.738443 4.5642
0.07567723 7.986204 4.326888
-0.3739816 5.226661 1.622076
0.8390539 8.049277 4.193697
1.541444 7.510153 4.489041
-0.3804151 5.231626 1.652663
2.649351 7.49112 3.723919
0.862323 5.695776 3.24052
1.142198 5.292845 2.812618
1.316622 6.288394 3.311927
1.212593 5.430221 2.81824
1.818054 7.161241 3.526205
1.137272 6.085818 2.960017
1.173936 5.350272 3.007948
1.727747 7.354124 3.612479
2.671552 7.224095 4.462147
0.8070647 7.568547 4.989366
1.769867 7.142295 3.579957
0.3192484 4.981353 1.60944
2.282049 9.749931 4.992342
1.931461 8.99285 5.420823
2.652746 8.218133 3.887161
2.62083 8.136369 3.829466
2.557892 8.386768 6.232841
2.205224 9.13169 5.093484
1.061246 4.966692 1.741442
-0.7372016 4.856704 1.670299
1.057603 4.85712 1.706188
1.038008 4.847744 1.670567
1.099854 4.838692 1.686817
1.249398 4.844523 1.857703
-1.258801 10.66265 5.02687
-1.706545 10.5978 3.214247
1.187444 7.585999 4.898054
1.208873 4.812792 3.449241
0.3603955 4.983722 1.619901
1.333155 5.734006 2.903053
1.208343 5.581334 3.241911
1.214405 5.724293 2.90722
1.244689 6.833713 4.819503
1.423764 7.632249 4.131618
1.589397 7.286217 4.011945
1.633121 6.947589 3.80279
1.555027 7.190246 3.60448
0.127774 8.026672 4.19956
1.141934 7.865344 4.328672
0.0643816 7.806006 4.488071
0.01970804 8.137304 4.354722
0.07937284 7.990794 4.344664
2.52351 7.624154 4.117036
1.234846 4.805892 3.496247
2.260878 4.818013 3.541868
-1.358519 4.695086 3.340951
-0.1363962 4.711102 3.485112
0.2250395 4.860129 3.491865
-0.3830795 5.230566 1.646893
0.3238016 4.984627 1.623556
-0.3709587 4.851805 1.534107
-0.3789673 5.228629 1.639599
-2.168898 7.801416 4.508075
1.126567 7.627676 4.777548
1.631891 6.939276 3.815962
2.695729 6.654701 3.552279
0.3612747 2.991574 3.589082
0.583626 2.6351 4.736376
0.6620885 2.489349 3.817462
2.333379 4.600998 3.292814
0.7323229 2.931263 3.614223
2.341072 5.926107 2.84716
0.8074839 2.572376 3.189669
-1.336183 2.721508 3.339705
-1.356875 4.006244 3.345032
-0.7830974 4.696388 3.410839
-1.181675 2.882643 3.385185
1.412563 6.644879 4.203413
2.572331 8.128284 3.517402
-1.290507 10.39468 3.169827
0.5561898 10.48032 3.629407
-2.251081 7.363797 4.672862
0.04447183 7.576736 4.93331
-0.6046948 4.865656 1.567103
-0.7753239 4.695021 3.373712
1.135309 4.721882 3.704372
-0.3586165 10.42827 3.225148
2.615337 7.943509 4.19655
1.089571 5.988036 3.601547
1.561071 6.939172 4.026764
1.592525 6.87098 3.979788
1.069159 4.78975 3.464438
2.304705 4.658577 3.217586
-1.344466 3.728308 3.323005
-1.241476 3.695758 3.056719
-1.580883 3.678803 3.910284
0.4572672 4.708705 3.581256
1.68759 2.35376 3.210109
0.2229416 2.587847 3.592275
1.275583 3.123623 3.617673
-1.475119 3.986903 3.335667
0.6031104 4.708039 3.636209
-1.481073 4.206385 3.336482
-1.353839 4.002864 3.331548
1.017995 4.808915 3.53026
-1.016134 4.697981 3.383307
2.308949 4.781128 3.502042
-1.495361 4.586624 3.251636
2.233382 3.250693 3.78491
1.141012 3.797672 1.466903
1.502676 7.477516 4.517502
2.705917 6.715411 3.61185
0.9849197 7.372591 4.998888
0.9790381 7.375319 5.006734
-2.212908 7.312166 4.689253
1.485597 7.433425 4.574728
0.3108628 5.28014 1.841159
0.7877301 5.297475 1.979752
1.362934 7.029608 4.712924
1.45856 7.87911 4.150854
0.1937799 4.870264 3.431551
2.272747 4.649371 3.433261
2.337395 4.797089 3.221925
-0.3361804 4.856756 3.426153
2.390332 4.883642 3.373488
1.145126 6.197393 3.226392
1.230003 6.330894 2.989357
1.810814 7.164272 3.514505
1.610595 7.475729 3.771064
-0.4241996 4.846322 1.509161
0.7226163 4.718281 3.715104
-0.351207 4.863326 3.446742
1.285383 6.936674 5.026841
1.536258 4.796063 3.486227
2.399641 4.598048 3.505667
0.6066253 4.702242 3.574006
-1.512922 3.950633 3.351747
-0.7102656 4.838572 1.535158
-0.07500096 4.864778 1.584535
1.709012 3.070029 3.711171
-0.8267643 4.833065 1.582802
1.502841 4.867268 1.765822
-1.036317 2.879225 3.373798
0.6810179 2.559725 3.627956
2.476123 2.968486 3.552279
2.758093 3.316256 3.875388
2.198528 2.039642 3.177494
-1.085044 2.712138 3.35234
0.5105186 2.687587 3.50325
1.761752 4.808684 3.519934
2.298383 4.774024 3.495053
-0.1323397 4.852846 3.497425
-0.5745139 4.832902 1.591067
-0.7043509 4.852086 1.498603
2.446417 6.986118 4.235221
1.195243 6.291842 2.938269
2.343252 7.007232 4.195609
2.433412 7.395026 4.538023
2.611402 7.290491 4.228536
0.7571738 5.604126 2.649538
0.9611879 7.364019 5.02449
-0.6483373 4.797948 1.633482
-0.5958176 5.239252 1.626626
1.181895 5.89928 3.102506
1.03174 4.950267 1.69053
-0.1953365 4.974549 1.540199
0.7040658 4.851355 1.97601
0.1851058 4.845422 3.410069
2.139066 4.805981 3.452971
0.5912589 4.822948 3.506454
1.679219 4.787568 3.51551
2.711998 4.202948 3.801336
0.9714714 4.810931 3.471533
1.147555 5.81467 3.309672
1.08417 5.50451 3.236802
1.188888 6.270937 2.886904
1.197831 5.461485 2.832534
0.1296224 5.533643 3.395771
1.22319 5.33505 2.764621
0.6840947 5.558955 3.596532
1.067697 5.518906 3.057372
0.5480673 4.815053 1.778387
1.172171 4.865052 3.47367
-0.1320801 4.813961 3.23427
1.752205 7.419397 3.667871
2.439949 7.47859 3.902207
2.603673 7.943297 4.199817
1.337115 7.437665 3.692656
-1.442387 4.042257 3.271624
-0.9139342 4.703521 3.461613
0.1882246 2.957171 3.576894
0.3741052 2.994252 3.630284
-0.7879881 10.48341 3.174433
0.05720479 10.7413 3.120675
0.0851722 5.3764 3.84986
2.479904 5.73736 2.580523
2.271378 6.956964 3.973762
1.148598 5.644463 3.064297
1.706343 6.974715 3.676623
2.361567 5.509599 2.836208
-0.5021594 5.244681 1.657262
1.122912 4.859954 1.723919
0.3076082 4.830831 3.440771
1.197121 6.088831 2.955492
1.1066 6.247857 3.062147
1.135578 6.292851 3.313898
1.195013 6.105813 3.031054
1.346015 7.414622 5.014487
0.09384437 7.568827 4.979308
1.366842 7.430068 5.024585
-0.5191085 4.836164 1.48253
-1.522917 3.639691 3.412852
0.6006556 2.416849 3.486475
0.6079171 1.668727 3.330145
1.563536 2.207248 3.152969
0.1862364 2.95666 3.559294
1.692119 2.966211 3.703219
-0.464954 1.949586 3.459973
1.115057 3.038061 3.655878
1.308747 2.433837 3.041418
2.452643 3.200726 3.831372
-0.564037 2.723428 3.457373
-0.5581917 2.720474 3.452181
0.5649781 1.448529 3.393237
2.413197 8.371605 4.566289
1.445461 7.263143 4.685846
1.341627 7.427167 3.667032
1.838614 3.247612 3.690629
2.783568 3.99174 3.869522
0.9170273 2.581056 3.167835
1.591837 2.595731 2.983441
1.258353 2.172217 3.145866
1.374425 1.920345 3.207905
0.5823698 1.437718 3.461543
0.6431677 2.946176 3.546084
2.080896 1.641432 3.25957
0.8100794 7.532146 4.902843
0.5092982 7.779315 4.949049
0.9993716 4.803915 3.51254
-0.5778347 4.99289 1.542352
-2.70913 8.168679 5.828397
-1.490216 4.127759 3.326697
0.2950556 4.859079 1.741133
2.388771 4.535761 3.361669
2.426732 4.864263 3.250983
2.804198 3.876189 3.909483
-0.4666911 4.698254 3.395846
-0.4959186 5.282959 1.726565
0.8668701 4.901513 1.829493
-0.7970587 5.379429 1.92261
1.087392 6.315359 3.514931
1.050015 5.988698 3.10814
1.447894 7.333466 4.680649
1.443358 7.265628 4.690134
1.198911 6.263238 3.376493
1.139153 5.671177 3.068221
1.078103 5.696638 3.185612
1.186741 5.669342 2.850033
1.806078 7.161902 3.515547
1.805222 7.161734 3.525842
2.279827 4.79429 3.53567
1.818151 4.891919 3.213659
2.586411 3.6247 3.758611
2.528109 4.173388 3.669772
0.8083134 5.263903 1.824525
1.445447 4.725251 3.684406
2.703127 6.654826 3.558581
1.145135 6.19079 3.262553
0.9718104 7.368598 5.013138
1.008403 4.822857 3.490704
0.2897176 4.832866 3.384558
-0.1471299 4.83556 3.537794
-0.4604122 4.852407 1.528035
-0.5714345 4.828072 1.525888
1.547873 5.286842 1.930012
-0.5093518 5.267104 1.683986
-0.6960206 5.244883 1.627252
-0.6022657 4.818634 1.701445
-1.494892 3.880694 3.348267
-1.188673 2.885062 3.344599
0.358128 2.892442 3.589474
-1.037222 4.693724 3.375776
2.288392 4.642384 3.470557
2.517795 3.063148 3.794972
0.1045066 4.817678 3.478356
2.378144 4.761272 3.361636
2.227208 4.567558 3.16419
-1.5797 4.080184 3.902195
0.6514802 4.809861 1.768823
1.327589 6.441895 3.174301
-2.374207 7.471535 5.064934
2.382448 4.52256 3.316599
1.514995 4.79683 3.403661
1.130931 7.341431 5.06871
-0.5265407 4.84641 1.495903
-0.5289118 4.826965 1.577764
0.8864745 5.267594 5.391372
-0.6716932 4.794623 1.444601
-0.402452 4.853024 1.541122
1.378461 4.828914 1.833047
-0.677692 2.541403 3.410377
1.675091 2.786027 3.619658
1.993667 2.374003 3.19892
0.8210966 2.561373 3.24098
0.5456285 2.082258 3.596283
-2.027361 8.292624 4.28019
-2.121107 7.494593 4.585576
-0.03022483 7.710455 4.952772
0.01908387 8.079191 4.29528
-1.986964 8.274807 4.239015
1.123026 7.615161 4.743715
-1.618836 7.376795 3.97023
2.494897 6.860552 4.188888
2.667847 8.260955 3.839473
0.506105 7.704841 4.8226
2.310137 8.836338 5.045453
1.168394 8.221461 4.316028
0.1376083 8.246088 4.268505
1.607499 7.080218 3.768306
0.6957355 4.83087 3.493432
-2.397093 7.577388 4.976496
2.692259 7.241887 3.602564
-0.5919965 5.216989 1.591103
-0.2398001 4.840789 1.559772
0.8129117 5.272181 1.829903
-0.6985852 5.23757 1.60817
1.000835 6.185957 3.266721
-0.2257093 5.2091 1.651214
-1.290122 4.806439 3.381023
-0.3647079 4.89301 1.510975
2.391717 4.357523 3.46045
0.08491537 7.564134 4.977366
2.361997 4.583864 3.457955
1.399069 4.676471 3.680015
2.252263 4.861463 3.444886
0.315835 4.834038 3.485084
1.405079 4.84352 1.867311
0.60289 4.807587 3.474802
-0.5883054 4.885241 1.594328
2.238956 10.05758 5.356629
1.62633 7.325221 3.542244
2.284673 7.324183 4.403025
-0.05392265 4.968917 1.578424
2.059678 4.721799 3.849026
0.1539554 4.859172 3.513397
0.1168449 4.857722 3.6193
3.382447 4.885618 5.106611
2.523793 7.531073 3.827216
1.186599 5.646781 2.81095
1.743099 5.739616 2.884723
2.743512 7.118272 3.999841
1.098106 5.607073 2.679413
2.490539 6.160247 3.912547
2.407149 7.487682 3.911738
-0.1906886 2.582963 3.473911
1.726936 2.474503 3.16941
-1.309474 2.888877 3.327874
0.4759974 2.773915 3.550462
-0.8364109 2.606137 3.413259
2.427076 4.119776 3.516572
0.4529737 2.809455 3.544419
0.6941875 2.750984 3.612982
0.8333477 2.560794 3.233624
1.245709 5.482451 2.896505
2.33668 7.386305 4.518979
1.274463 5.722619 3.336679
1.559553 7.548388 4.538238
-0.2667728 4.841444 1.567639
1.23721 6.856841 4.85085
1.230378 6.325854 2.996385
2.28332 4.63894 3.433298
0.6442328 4.781713 3.855142
-1.500525 4.822703 3.294153
0.5740468 4.707884 3.580245
2.294043 4.711137 3.226783
1.745371 4.771864 3.453424
2.538523 4.585899 3.658909
2.334036 4.837873 3.408781
0.4646004 4.718513 3.571518
2.611003 4.403233 3.626443
1.496698 7.431885 4.576325
1.598117 7.478693 4.294579
0.4591116 4.708736 3.564499
-1.865668 7.204602 4.158874
2.627519 7.113317 3.98207
0.07290025 5.227571 1.706926
1.256031 4.871621 1.800035
1.223023 4.788637 1.765181
2.158739 3.373222 3.691397
-1.88756 9.418606 4.012045
-1.956753 8.662853 4.111492
2.370204 9.810384 4.748831
2.15571 9.735875 5.277309
1.50806 1.982224 3.121975
1.216364 2.246215 3.037058
0.991114 2.063833 2.992536
1.399703 0.7292665 3.415171
1.057916 1.284476 2.963329
0.5974326 2.406469 3.492669
1.466811 1.553426 3.492763
1.27523 4.852182 1.901681
1.290506 4.818487 1.869224
-1.490418 4.846377 3.318709
2.058363 1.635237 3.182791
1.127267 8.107499 4.153937
1.04686 6.015831 3.932831
1.415618 7.717783 4.476099
2.34537 4.605357 3.30941
-1.743457 4.771254 3.262798
1.816897 3.750017 3.699316
1.755257 2.601424 3.01561
2.27879 4.647373 3.437357
-1.274701 2.8839 3.256356
2.561362 3.06229 3.86873
1.531729 4.798049 3.467893
1.612071 2.551798 3.07566
1.664138 2.430158 3.36807
1.735889 2.599963 2.999466
1.906507 2.570305 3.036675
1.691383 2.62003 2.900772
1.649124 2.437627 3.31823
0.9474653 1.836383 2.88934
1.596714 2.555291 3.030624
2.170537 1.592528 3.284576
1.869238 3.24229 3.755126
2.695201 3.660346 3.940359
2.128581 1.340503 3.129616
2.059942 1.659441 3.168935
2.10536 2.042887 3.172716
0.6744404 2.482532 3.558891
0.3394034 2.99753 3.510044
-1.350253 4.693926 3.341947
1.406492 4.672191 3.678869
-1.510444 4.844398 3.342457
-0.3280799 4.854993 3.446977
0.1904168 4.868607 3.444998
-1.003208 4.684789 3.359028
-1.346433 4.684704 3.320834
-0.7739799 4.69186 3.375244
2.265869 4.815819 3.562659
-1.359547 4.692899 3.356637
2.020789 4.717654 3.770292
0.4289866 4.711658 3.585116
1.581227 2.419818 3.011179
-0.3290066 4.857443 3.463451
0.5116557 3.018697 3.495984
2.001916 4.729953 3.741088
-1.108156 2.571431 3.378506
0.7286622 2.804395 3.599073
0.09903236 2.90156 3.515447
1.49274 1.861575 3.212322
-1.473655 3.529435 3.310142
0.7550035 2.189858 3.297901
2.18854 2.451912 3.176274
0.2463451 4.986821 1.620851
0.07582869 6.467635 3.185138
-2.298527 7.493317 4.773033
1.237638 2.18583 3.13121
1.594937 1.690274 3.184363
0.9866982 1.568414 2.992291
1.476816 1.16281 3.640924
2.606475 3.057491 3.757762
-1.896137 8.481271 4.614874
1.490283 7.454677 4.354661
0.5990038 8.729466 4.889364
0.6510194 9.050488 5.342461
1.764062 7.851327 4.216367
1.619783 6.858505 3.372686
0.9783864 5.733936 4.075381
0.02093549 3.933536 6.429962
1.415489 6.12878 5.297171
1.311194 7.218164 4.847959
-1.710947 6.635025 4.182634
1.054989 6.018559 3.943141
-1.800844 6.71343 4.415131
1.033935 2.554838 2.927435
1.734746 2.59963 2.942658
1.53516 2.610447 3.583896
0.5476893 2.077255 3.626154
-1.356743 3.143451 3.36678
0.7328357 1.903289 3.104179
1.839092 3.568705 3.733598
1.530578 1.561198 3.24834
1.471227 1.309741 3.644298
2.177896 1.817236 3.164815
-0.6326073 2.556645 3.428349
2.485537 3.489263 3.826076
2.761476 3.542497 3.887516
-0.5924271 4.84556 1.509681
-0.1845954 4.841867 1.5714
1.232685 4.870961 1.774057
0.7431252 4.861147 1.722611
-0.3472289 4.852626 1.520722
-0.346498 4.861938 1.729367
0.1971051 2.958301 3.551488
1.409555 1.869792 3.231592
